# 3D point list with one line of data per point:
#   POINT3D_ID, X, Y, Z, R, G, B, ERROR, TRACK[] as (IMAGE_ID, POINT2D_IDX)
# Number of points: 342, mean track length: 5.051569670041518
1710 0.3167406825325495 1.8276064205227589 2.3476913108523649 221 207 127 0.14435831501735036 98 572 54 320 17 175
1713 0.50152964998348404 1.7867914133001686 2.3805418133782146 53 91 47 0.074435833422869316 98 609 54 402 73 619 39 619 12 494 33 563 62 404 31 197 84 433
1715 0.55651925361201182 1.8406827337612945 2.3596018979596476 58 101 51 0.21829674127849277 98 657 54 409 41 563 86 561
1717 0.72176221893171255 2.0968651685517936 2.2932348059266432 91 160 74 0.057755494207095123 16 699 54 422
1720 0.43535030223558085 1.5403645049957482 2.5086253792151783 46 86 46 0.11421716311062366 15 458 54 442 73 493 99 356 31 331 48 186 46 195
1722 0.091872412109124099 0.63557262113780744 1.7472360166203111 142 154 105 0.2862297304868478 16 75 54 450 73 56 39 47 62 111
1723 0.65971016936844573 1.867414123988234 2.3618603631809365 61 101 48 0.12387632948073039 15 651 54 458 60 359
1727 0.72278248090105401 1.8947524072867359 2.3657482886089789 78 119 58 0.21577889335510342 15 678 70 667 54 479 44 333 84 562
1728 0.65839176662224408 1.7630653050382241 2.4113885107564497 214 198 120 0.14867398994513881 98 652 54 488 73 667 79 504 33 597 39 663 62 333 70 607 99 384 31 222 84 508 80 264
1732 0.5213891287382767 1.3572185163220722 2.6370017930756249 122 123 76 0.11962192082521934 16 356 54 535 46 250
1733 0.96232856549482149 1.9970330948868431 2.428165024944851 69 112 47 0.47570446204723377 15 738 54 560 62 327 79 1321 91 1223 86 587 60 296 17 22 49 252 67 508 63 484
1734 0.97583623324510849 2.0113920561428618 2.4121821664623084 149 201 103 0.10139070791866317 79 1333 54 565
1737 0.35743567419013367 0.69280647587927169 1.8317211603249623 91 170 94 0.16775043615718072 15 173 16 820 54 577 62 59
1738 0.82468140451641858 1.5239069776988337 2.0127656984698508 124 93 64 0.29875649115068287 15 674 54 586 31 234
1740 0.8093949992842322 1.398701613657481 2.0301278741742932 254 244 217 0.35856065418127858 16 538 54 606 33 477 12 590
1742 0.83952719541063403 1.4356247792660783 2.0347695596713513 255 255 233 1.3999819318985556 15 1130 16 566 54 611 12 1431 54 1454 99 1474 31 287
1743 0.6131772971047319 1.0106281937708408 2.4197647587686668 42 40 38 0.78381370905349879 16 937 54 625 62 118 99 949
1744 0.75828203499007674 1.1628583279722822 2.1023484096713645 63 102 50 0.18524717919566927 16 418 54 633 33 372 12 512 99 544 31 423 26 204 53 330
1747 0.78735726850957166 1.1084173042261602 2.1342699761153319 83 141 69 0.13248764989306344 15 533 54 657 33 360 99 963 31 457
1748 0.82288454936219546 1.1176644941029037 2.3586275286691394 1 1 1 0.51411558617736475 54 676 64 366
1749 -0.38120989969361835 1.2283987450430121 2.1192099266658873 248 229 142 0.31654292266007306 16 807 54 743 26 579 66 429 2 52
1750 -0.20362235550831115 1.7426680248755078 2.4561322120013589 83 117 58 0.21478021809463002 15 904 54 758 17 878 50 1301 4 674
1751 0.21968779094431495 2.3018719911045249 2.2435098566766913 190 197 117 0.16332386496455281 16 1208 54 775 17 682
1752 -0.027983752189906359 1.7841305993922616 2.3957173693525879 63 101 49 0.094059006471561013 98 1110 54 780
1753 -0.3204795026292161 0.70983169275866831 1.8094865127928765 153 144 144 0.28582106953661213 15 754 54 795 31 527
1754 -0.059030990748537078 1.5183358992101477 2.5538521835780177 176 157 93 0.20207224785289743 16 919 54 816 46 1016
1755 0.16100727048545585 1.8343020888628851 2.3544687985764492 59 98 51 0.15833776969276969 15 1010 54 822 62 1163
1757 0.44499696535793737 2.319100275770118 2.2637606237849894 216 211 141 0.30635935736775805 15 1158 70 1153 54 829 31 590 17 658 36 298
1759 0.32467011467784529 1.9349269031115557 2.3079736099072292 227 208 131 0.091381665081548255 70 1079 79 1310 54 844 73 1256 62 1156
1760 0.53597725797134543 2.1049795105846711 2.2817528704507262 221 213 134 0.11331460639124452 98 1683 54 877
1763 0.53790555550316588 1.978769867448249 2.3066602824050029 68 118 56 0.15391833848878961 79 1328 54 902 73 1295 64 1298 15 1125 41 1281
1764 -0.039898326617335444 0.5937161631989325 1.6762069866289309 93 97 43 1.425652615014942 98 1361 54 912 73 1822 33 1878 39 2147
1767 0.67340572310653735 2.1144899342048022 2.2942723596864414 99 167 78 0.069370429357078572 15 1172 54 923
1768 0.31389503968554949 1.445620756993296 2.5575266963774159 163 150 98 0.094606908589176281 16 334 54 934
1771 0.29360960345814796 1.3290390837125428 2.6470464249310477 168 155 100 0.2843809641081792 15 941 54 951 73 363 33 353 12 335 62 275 70 300 99 848 17 930 84 305 80 652
1772 0.57348291725524669 1.751880062526715 2.4043547010627173 216 201 126 0.086521525549682565 15 1095 54 959 99 840
1775 0.46688058559667467 1.4625152209561867 2.5621174842141126 144 140 94 0.23593128513798253 98 1106 54 983 73 1162 39 1215 99 868 31 830 70 1019 53 667
1777 0.83841554676724739 1.9929175435094368 2.3667944907917962 185 181 131 0.43581418913598363 16 1243 79 1324 54 1003 53 561 9 156 5 95 57 26
1779 1.0026959407312677 2.2520164110505547 2.4765142028036626 183 149 86 0.36097723982671537 15 1206 54 1012 62 1075 31 629 80 587 53 131 43 141 50 452 42 66
1780 0.1662338430740804 0.50235960953718439 1.5920233312417051 24 19 15 0.070083022024678532 16 53 54 1014 99 859
1783 0.58157607263245481 1.2563270705704772 2.7252995491839367 67 105 56 0.50218204895584939 16 987 54 1050 39 1199 86 376 60 204 88 635
1784 0.68249874335356431 1.2665717934875704 2.7387260471890045 53 84 39 0.50588521557454857 98 414 54 1079 17 868 84 455 88 659
1785 0.73906996650721202 1.2665442526013635 2.0765227622002755 155 150 76 0.30986709725562911 15 564 54 1081 33 399 31 818 17 1137
1789 -0.0927818861491784 2.3670154821852938 2.2857160169426103 156 181 96 0.22463777858770384 16 1570 54 1151 17 1398 46 852
1790 -0.29051198516828963 1.9253184942912864 2.4210253750096125 112 167 85 0.54664651892366412 15 1346 54 1159 39 1672 31 1319
1794 0.11235182539798945 2.0427659653781283 2.287580464224618 233 217 129 0.11413818012813898 15 1466 54 1213 62 1635
1795 0.11241894087804974 2.0184805233437619 2.2943930251876403 80 136 66 0.066790844140751329 16 1531 54 1217
1798 0.27618190856367442 2.0313747249578329 2.2819382807238937 136 159 85 0.60579352936117048 79 1883 54 1258 31 1005 17 1091 50 1246
1799 0.0038969853998946724 1.5803741513645708 2.5031439285900814 180 159 94 0.12501711100156232 16 1424 70 1329 54 1259 62 1549 31 1131 46 985
1804 0.11612901309243806 1.5348635255293785 2.5283940889696588 50 89 40 0.063973317669460711 15 1361 54 1285
1805 0.34207500003360886 1.8913414287474655 2.3233164127592616 53 95 52 0.17150264489898659 15 1493 54 1289 99 1109
1806 -0.096543825547631953 0.61140910140904603 1.6906323871796527 113 98 66 0.66141767446185185 98 1744 54 1311 62 1733 60 1841 86 2321 49 1389 50 1873 67 2241 85 2021
1808 0.46851260578778925 1.8188225326341514 2.3665737529189244 211 194 115 0.30985361353270674 15 1503 54 1340 62 1516
1811 0.6959165172192211 1.8671196580521514 2.3612697346511364 61 105 49 0.16253191657405941 15 1543 54 1380 99 1189 53 844
1815 0.27680643834120661 0.68387416876202656 1.7975913086864488 181 187 135 0.16803700156798115 15 1273 70 1298 54 1420 99 884 31 930 17 979
1817 0.80155104944340627 1.7430586972418487 2.4541287868848354 102 97 49 0.49219055763406444 79 1786 54 1425 60 1512 86 1254 26 915 66 705
1819 0.49086242788072448 1.105622009619637 2.4829648570827327 170 176 188 0.13215304597058081 15 1672 70 1394 54 1432
1822 -0.3484663444383877 2.0866641750911801 2.3929043354222408 151 141 78 0.61106879263041469 98 1880 54 1499 73 1943 33 2042 62 2098 60 2199 99 1312 17 1590 49 2089 50 2265 67 2400 56 1868 36 1856 46 1262 20 1734 40 1623 96 1356 22 1246 93 1178 71 1368 18 1355
1823 -0.10536020019760253 1.658752924319242 2.4785431544608199 55 101 47 0.36615513875025929 15 1649 54 1544 17 1475 46 1167 48 987 66 726
1824 0.092668461595870111 1.8345471856095092 2.3566834065514364 63 101 52 0.34878909789917384 79 2167 54 1550 12 1576
1826 0.27641667247000556 1.4083564074472332 2.5830477929135771 149 145 90 0.17669438974559218 15 1670 54 1599 17 1481
1829 0.11649662830860902 0.50889876708187132 1.6200164160741124 255 244 134 0.56026486267625819 15 1224 70 1231 54 1631 31 1464
1831 0.69099757962105135 1.6011409023881229 2.4968923468454447 163 153 96 0.54487750620311615 15 1745 54 1643 62 1769 60 1876 17 1421 26 929 66 724 48 755 9 717 25 673 5 696
1832 0.87280760773439159 1.3941802716003142 2.0878694793472015 1 1 1 0.90037181551144374 98 1910 54 1668 31 783 70 668 26 912 48 30 57 221
1835 0.18250527295431593 1.9925064313373324 2.2964935856066471 251 227 138 0.49799849278717767 79 2409 54 1708 62 1879
1844 0.93971203334013653 1.9950262178170823 2.422542841673033 110 169 84 0.53991888697157608 79 2398 54 1790 60 1886
1845 0.72297586763642829 1.0173473378699525 2.2011613282817288 255 253 225 0.78120386174507539 15 1707 54 1807 99 1489 12 1787 26 1070 88 967 53 1201 80 1204 9 776 5 605 25 568 43 728 14 459
1847 -0.034430788895172419 1.4845274427951443 2.568770023451374 129 127 70 0.35814187081342047 15 1970 54 1833 33 2349 98 2179 99 1655 31 1629 53 1230
1850 0.60711738914436419 1.9095071131509891 2.347523170778306 76 114 57 1.1960217222808753 98 2235 54 1851 64 2433 91 2313 80 1233
1851 0.60795844019807388 1.9134623701716205 2.3475592341973281 76 114 57 0.36034353091692056 98 2236 54 1852 64 2434
1852 0.59862209554710322 1.8473033951454068 2.3720494459130221 66 105 52 1.0635905523668956 16 2094 54 1853 99 1672 69 2078 88 1081 80 1236
1853 0.68857134532809861 1.0749046125055537 2.174859049644744 88 79 72 0.5130491987328758 15 1997 70 1992 54 1870
1854 -0.054050632189081897 2.0688006581399967 2.2931952787926742 153 177 93 0.45990201975529604 15 2059 54 1885 60 2366 49 2251
1855 0.032112894455681044 2.1545839358244243 2.2749874583517826 211 204 120 0.95030800664895188 16 2162 54 1886 62 2260
1856 0.28374150126092612 1.8527973957042527 2.3487257856261228 156 157 92 1.1431409200122602 98 2285 54 1898 33 2439 60 2349 49 2232 36 1900
1857 0.2835113190517794 1.8517229540770466 2.3473610273987338 156 157 92 0.64520221612470385 98 2286 54 1899 33 2440 12 1934 60 2350
1858 0.6937126534291912 1.9186346649985071 2.3497823100616806 138 160 88 0.71453097390347531 98 2371 54 1943 12 2021 62 2294 99 1770 46 1417 26 1194 48 1209 66 897
1859 0.6353802756297513 2.1519447462878452 2.2899016724887105 98 171 80 0.86851913558598381 15 2198 54 1976 62 2399 99 1791 17 1769 4 1353
1860 -0.0069165009242061681 1.8817530547159653 2.343907621592062 225 206 123 0.43401861484006804 16 2257 70 2136 54 1993
1861 0.61182454595852054 1.9368730747114404 2.3282662452959104 73 114 55 0.91834489100066663 16 2287 54 2026 73 2523 33 2619 39 2616 12 2070 64 2672 41 2668 100 2519 62 2331 31 1761 17 1774 69 2319 84 2014 7 1986 87 1738 44 1566 38 1569 46 1443 30 1183
1863 -0.05180705981221085 1.7839063576561578 2.379878009809929 162 159 88 1.1862165443736232 98 2454 54 2060 17 1880
1864 -0.36702289466249455 1.4547454524026904 2.0336194994400691 48 83 39 0.48381610676883441 16 202 70 115 54 46 15 122 79 383 33 253 39 240 64 338 99 47 17 452
1865 -0.2970012663627401 2.0364175441976071 2.3850901224367163 170 180 97 0.38670332013784914 98 1137 16 400 54 26 79 654 70 247 73 443 33 481 39 488 62 714 86 774 60 746 99 39 17 276 49 1307 50 1385 67 1421 53 25
1866 0.76170598433448489 1.3914829611782706 2.04920848871136 248 242 211 0.82399160182728104 98 549 16 514 54 591 15 1105 70 1132 98 538 46 46 26 101
1867 0.6947376379243877 0.85567025201730174 2.1662591921339192 237 237 241 2.2139792875539115 98 299 79 185 16 920 15 384 54 679 98 982 79 176 15 971 70 424 73 1032 73 1523 33 995 33 1000 39 1083 39 1587 12 1773 64 257 64 992 41 972 41 976 100 985 100 1503 91 234 91 946 86 171 31 531 67 141 63 887 78 179 52 150
1868 0.08375559306747446 1.3297384874366789 2.6540493426409988 127 117 69 0.51437684779126924 16 901 15 897 54 886 98 303 70 215 33 1040 79 352 62 1022 17 955 49 1082 84 844
1869 0.35452370010453632 1.542436712407212 2.5038196339388481 49 87 44 0.46185082061723604 15 1700 70 1686 54 1758 79 2344 98 2077 16 1959 73 2157 33 2232 39 2230 12 1598 64 2279 31 1623 80 1163 4 849
1871 0.49546541082808221 1.7304706427577996 2.4072498379135094 31 56 30 0.21440620423015477 79 1789 16 1529 54 1352 15 1496 70 1487 33 1718 39 1730 98 1593 64 1718 41 1711 62 1488 91 1117 86 1279 99 1162 31 1095 17 1130 49 1030 60 1069 67 1180 84 1329 80 829 73 1674 26 730 53 859 66 588 46 855
1872 -0.4198404702821722 2.2063770391885749 2.3734026025846342 165 183 96 0.38956428944694732 98 1892 16 1783 15 1862 54 1492 79 2432 70 1635 73 1951 33 2253 39 2045 12 1519 100 1968 99 1306 31 1285 69 1441 26 868 53 952 80 945
1873 -0.28855280900646846 1.4270973675323622 2.6812162425765225 140 126 67 0.47066531903004594 98 2032 16 1697 15 1612 54 1540 79 2336 70 1816 73 1888 33 2198 39 1975 12 1504 64 2035 41 2044 99 1354 31 1550 84 1462
1877 0.28257870857239947 1.3853610652955848 2.6047725250004641 76 107 58 0.10118185582950881 15 330 54 413 60 313 16 307 31 419 46 311 80 313
1887 0.14279811434515124 0.47216478261479156 1.6237960330695576 128 101 75 0.34983142515517229 70 1232 54 1410 62 1294 60 829 99 1198 31 1268 17 1355
1897 -0.21130279207251818 0.60966012810295966 1.7960200246963882 126 119 117 1.2308765925386549 79 64 73 3 33 4
1898 -0.11071058191282812 0.60896135795345385 1.6857663061794739 145 117 93 0.22032374458639414 15 13 73 15 33 10 12 8
1900 -0.18494279038673386 0.68860154927149031 1.8170043347743785 115 129 84 0.20257587001562927 79 93 73 23 33 36 39 29 41 58 67 118 85 87
1901 -0.096213456857776464 0.66439166539959438 1.7845340518769808 64 119 65 0.14510815740438265 98 47 73 27 62 175
1903 -0.098305276774048683 0.73980734488575572 1.8211605984807473 77 141 75 0.18336786599548391 98 79 73 48 62 198
1905 0.13107517705650285 0.64526318727090048 1.7492870355092227 60 116 64 0.163320805419297 16 83 73 60 33 62 15 84 64 43 91 58 86 84 60 89
1906 -0.37053040138848958 0.94790598249677238 2.1313025781406689 108 83 54 0.3455191300967021 79 226 73 65 64 957 86 1080
1907 0.20307629165381519 0.62932493156287539 1.7493026281129116 63 121 65 0.44620839251655742 79 57 73 68 41 53 60 845 84 52
1908 0.018536523940667016 0.75318636789193372 1.8210513495506184 71 137 73 0.039424971461840007 79 123 73 70 86 138
1909 0.2008012864536651 0.70044435280617701 1.7930080275687093 179 183 126 0.038187632799695073 15 120 73 90
1910 0.13063153629230481 0.75856489243323699 1.8522476291290386 69 136 74 0.3670010110235814 16 108 73 97
1911 0.13063153629230481 0.75856489243323699 1.8522476291290386 69 136 74 0.3670010110235814 16 109 73 98
1912 0.45307310459313244 0.56465510065013558 1.7263804561706184 174 169 175 0.47189104053677228 98 140 73 111 33 868 39 944 79 865 62 14 60 808 49 782
1913 0.34318094572768254 0.64864474151272944 1.7981824806048126 76 128 67 0.18304468972770013 98 144 73 119 33 90 39 89 12 169 84 87
1914 -0.24185404237399144 0.69637683227630243 3.5683441123044495 72 137 76 0.62843533379119743 79 206 73 122
1915 0.43239041994142491 0.6235118577452774 1.8234210701830285 149 151 104 0.21458867784442981 79 63 73 136 100 98 91 77 86 60 60 30
1916 -0.002601878017874642 0.92225746768102956 2.0211895542727683 147 160 111 0.16177219475632701 16 122 73 141
1917 -0.4142853867340236 1.2274296536085532 2.1134892555064955 247 221 125 0.25934305335665114 98 905 73 144 33 168
1919 -0.093137982733963495 1.1405771385039547 2.4386737914663921 95 139 93 0.51693083687146846 79 285 73 206 33 207
1920 -0.32966652825731713 1.3793145021982924 2.7210151310714727 142 132 83 0.090743358153467915 16 158 73 233 33 256
1921 0.65832562966529207 0.83936351901296136 2.1461690139099656 100 80 55 0.26888803209967921 98 272 73 286 33 984 39 259 64 234 84 273
1922 0.65719995902657236 0.88436695069981208 2.2120155620333151 172 157 131 0.4727338005901271 16 271 73 309 39 290
1923 0.30017491918787892 1.1507911593147335 2.5570567338594454 110 98 85 0.20979070984751688 79 286 98 294 73 313 33 280 39 337 12 294 64 347 91 359 86 337 50 280 67 347 85 279 84 259 56 271
1924 -0.37743280338891011 1.72937100727878 2.5208339857263797 172 152 83 0.16110066939567189 98 1030 73 320 33 361 39 374
1925 0.72758032621815472 0.96651314501503272 2.2251168665253185 145 110 75 0.22578922531734053 98 353 73 356 33 290 39 338
1926 0.27965446984467035 1.4265154011219983 1.1095036334246098 68 120 57 1.8308481332756978 70 556 73 359
1927 -0.46083155456136032 1.9924366934217801 2.3409714972930726 126 96 69 0.66459607678891885 79 633 73 367 33 435 39 420 64 1208 41 1186 100 468 69 1011
1928 0.15150537894766861 1.4923976103480783 2.536300392346857 89 123 60 0.13500941252796259 16 313 73 369 33 374 79 388 99 257
1929 -0.3973221877563809 2.0195190915470742 2.3474792139127616 251 246 223 0.19029235483188706 79 648 73 388 33 1158 98 1108 62 728
1930 -0.37906813097157394 2.0132769656116736 2.3539841478408907 49 40 24 0.81968650857363812 79 1351 73 390 39 1205 12 158 64 1218 84 161
1932 -0.18205552954323892 1.8514104234792397 2.4031137982963777 226 210 124 0.14501244897100163 98 439 73 393 49 1262
1933 0.12700783159652609 1.6050239800107438 2.4714973011407744 69 119 55 0.13535701941019199 79 436 73 401 31 304 60 463 50 480 48 249
1935 0.33157649355718111 1.4307203908810793 2.5699483130812926 57 109 56 0.2579622255855834 70 961 73 403 99 834
1937 -0.0994189424272654 1.8233109930215632 2.3995617418928274 232 213 123 0.084651373769587021 15 318 73 415 33 450
1938 0.79751040987993549 1.0948296017724846 2.213529136168658 252 245 230 0.72637125980795325 70 545 73 420 54 1483 99 1638 31 1215 17 823
1939 0.12710943382661297 1.646478938638269 2.4498770376877643 80 117 58 0.10070418591647992 15 365 16 368 31 276 17 328 73 424 60 483 79 454 54 287 62 466 36 351
1940 0.47675391671749401 1.3561090146508974 2.6396224093097778 56 108 56 0.26548416919205187 16 343 73 425 33 385 86 411 49 270
1941 -0.17651831050880296 1.9290846201718417 2.3673659777112399 221 207 122 0.20621901727323691 16 396 73 438 86 695
1942 0.23177204650474506 1.601951121758372 2.46307946451306 164 149 90 0.1831040904821426 15 396 73 446 39 458
1944 0.47085051827114233 1.4780834471932474 2.5526070825992355 54 104 54 0.1160418563497545 98 459 73 479 39 482 80 329 12 432 53 290
1945 0.79928153831904913 1.2216613231678031 2.0740496403897848 71 124 64 0.60923022634493018 16 451 73 484 39 1194 31 397 80 664 76 86
1947 0.54643092032686991 1.4476668225370244 2.5788007279550405 158 150 97 0.16124833647553311 16 416 73 494 33 433 31 388 80 355
1948 0.49378847709615026 1.5368740699628478 2.5187845332144718 138 135 84 0.17026426386056551 15 488 73 512 80 308
1949 -0.14972499878219039 2.0826002415702649 2.3140641423513046 102 157 75 0.22180025852204696 98 540 73 514 49 683
1950 0.21995585860518521 1.798322401009161 2.3669236596021919 77 117 60 0.11300276593323073 70 423 73 526 39 529
1952 0.20831695219157226 1.8164724342273624 2.357572451708974 83 122 65 0.073002016067104228 79 530 73 530
1953 0.47320819094504141 1.6212375511661357 2.4627989368411001 128 123 77 0.21366949429198573 70 1060 73 538 39 531 79 438 53 619
1954 0.28977045390453393 1.797595130083562 2.3671987664106067 79 116 63 0.049856110665398287 79 518 73 554
1955 0.35570928095786719 1.7424476203110506 2.3917918730472447 78 115 63 0.19692870563735312 16 477 73 556 12 410 17 207
1957 -0.08377570941449354 2.1512677457298413 2.2854030033848418 122 175 88 0.1082999156617722 16 509 98 600 73 574 33 591 39 593 100 558
1959 -0.068280192863929168 2.1511715034060304 2.2840168368230955 236 217 131 0.15328149980310152 98 607 73 578 31 35 70 397 36 476
1960 0.19668452320889801 1.9797738883538039 2.3004857788554873 73 120 62 0.13567789084996118 16 533 73 593 39 603 54 214
1962 -0.25288048281082659 2.5969466001794874 5.4896849739332989 99 124 71 1.5065936578659902 70 199 73 610
1963 0.67934701711999179 1.6577559995798352 2.4663476136223506 180 171 98 0.23064819429050187 54 522 98 594 99 422 17 161 26 162 31 285 39 616 73 629 53 262 9 160 5 118
1964 0.31739076398798755 1.9669599423489474 2.3016405560696072 69 115 62 0.12814567629677481 98 651 73 633 33 607 62 544 36 294 84 376 80 106
1965 -0.045785013163230255 2.2807417831945038 2.2757904678717034 102 185 88 0.44846740674202701 79 790 73 634 39 670 94 520 19 475
1966 0.70126680501864291 1.6723194260065304 2.4570833101235627 217 200 119 0.28970546856718005 70 600 73 646
1967 0.70126680501864291 1.6723194260065304 2.4570833101235627 217 200 119 0.28970546856718005 70 601 73 647
1968 0.58262811932265945 1.7786679189030872 2.3902488306880745 74 112 60 0.10198314168718212 16 572 70 585 73 651 31 204
1969 0.68982719022438976 1.6946698232672432 2.4513907495630192 218 197 115 0.25014722060044586 15 613 73 652 41 509 86 493 31 265 53 241 5 110
1970 -0.39779577409769645 2.7303862272787192 3.05545926655246 7 7 7 0.43522584652605945 79 843 73 663 86 912 67 870 85 768 49 776
1971 -0.38188866494655127 2.7283224143045168 3.0563633194417723 230 233 247 0.31949194987824314 79 842 73 669 33 710 86 911 49 775 50 839 67 869 68 714
1972 0.67900096420697198 1.7598507826477714 2.4174599958785441 212 198 112 0.13182316965961266 70 612 73 675 38 360 80 271
1973 0.22389145582057646 2.1497197180041541 2.2593476716687877 101 158 79 0.21359440113276745 54 178 98 686 73 678 39 690 41 640 60 662 49 568 67 666 85 574
1974 0.63347486220695226 1.8126432971005408 2.3857598075698596 176 175 106 0.087203554463665942 16 602 73 680
1975 0.24549224207723222 2.1589080082832224 2.2585335392630528 102 156 80 0.12265792454489094 70 546 73 685 49 556 79 709
1976 0.62770490941431178 1.8684812695711086 2.3597874214576744 64 111 59 0.027242151812027837 79 550 73 688
1977 0.85301648741292568 1.6819205472407222 2.2791098711464928 212 204 205 0.81764226893169234 98 678 73 694 84 571 75 298
1979 0.4981578232177058 2.033065415224466 2.2898508207401016 64 113 59 0.125680579045579 79 631 73 705
1980 0.55950551901476064 1.9810672336520982 2.31087927164464 67 108 57 0.14463972543304812 15 648 73 706 99 283
1981 0.72049904107529839 1.8938116897310338 2.3615121968189619 71 112 61 0.087434935361261359 16 642 98 715 73 716
1982 0.1497944855542154 2.3836437276987805 2.2568784875169938 203 195 111 0.2010037400452683 79 1471 73 717 39 762
1983 0.89853302328285223 1.7440641533630756 2.3249198283079719 107 98 59 1.6346366930488019 16 651 98 705 73 722 33 651 39 716 41 1226 69 1084 87 376 87 380 75 330 75 777 7 437
1985 0.79001683200827755 1.8610393954942499 2.4208922818117031 48 95 50 0.29161028166786951 15 684 73 725 39 738 12 639 17 77
1986 0.54067321754144504 2.0756045743309732 2.2841438202588993 70 122 63 0.11069249364566185 79 664 73 731 33 709
1988 0.58996356726646204 2.0945224857438105 2.287241255273794 76 130 67 0.14728048688620526 79 671 73 744 41 662
1989 0.8488554481311098 1.9143025034195329 2.4237147600783167 59 99 57 0.53867433275084553 16 672 79 566 73 749 33 1322 39 771 62 330 84 606 44 376 38 429
1991 0.62438239042629584 2.1067375670385413 2.2845573002399719 83 139 70 0.13800572356325788 79 679 73 754 91 605
1993 0.52527223000353984 2.2202780337606809 2.2677535623031879 92 161 79 0.27422411066113839 79 745 73 762 12 582 91 661
1994 0.61710451542947553 2.2803640239723655 2.2856016765531222 101 176 84 0.22745865718633473 79 771 73 799 100 737 87 451
1995 0.70186909208749237 2.2155754254766227 2.2945997203909534 186 199 124 0.30857639718710694 70 715 73 800
1996 0.66382026312363185 2.2938515858867201 2.2870801288870228 93 161 83 0.51081852802730343 79 775 73 811 86 778 39 1452
1997 1.0283747569494217 2.5426521263673156 3.0558369604209465 159 153 153 0.71502341442494322 79 1464 73 834 33 1406 64 864
1999 1.0139745533724143 2.5863281157433762 3.0741316480912104 3 3 3 0.43459855163469135 79 1472 73 837 39 882 64 1924 7 1081
2001 0.11898378489802332 0.59908167968613335 1.7298688525898587 65 111 66 0.2178331081618595 79 881 73 864 33 836 39 915 64 887 41 857 100 38 49 822 60 849
2002 0.25910128062518206 0.52662765547017076 1.626924884956606 220 219 229 0.94422035667168347 98 82 73 867 60 27 49 23 36 12
2003 -0.12902034648440414 0.75839844932508249 1.8333983268736709 79 145 78 0.2168935610435748 16 758 73 870 33 853
2004 0.29600127006704696 0.52728663964081646 1.6464168664651926 254 253 254 0.28157278250423906 98 862 73 885 84 691
2006 0.20357353446109769 0.59848734068436793 1.7391040399280158 47 99 58 0.20112945374286953 98 865 73 890 33 850 79 878 60 59 49 57
2007 0.22954478433060238 0.58071659846092094 1.7362056994040769 69 94 62 0.25418990293735555 79 1495 73 891 33 1438 39 1487 64 1454 41 861 84 696
2008 0.27909076230348329 0.56254201766445877 1.6807415507768222 136 108 82 0.36758419150863636 98 95 73 892 12 121
2009 0.10423509107136225 0.72167142305206655 1.7971066794993724 64 133 70 0.1779720558981166 98 871 73 899 12 103
2010 -0.3255425326055732 1.0519856690890554 2.305457718556307 183 184 196 0.34312391752714766 98 878 73 910 39 984 64 991 41 1538 100 963 87 660 75 628
2011 0.36923933306500289 0.64890217291660446 1.809222626585745 158 170 118 0.17816534044938653 70 872 73 911 84 721 38 25
2013 0.39617921046629789 0.67804874660547143 1.8312471578553384 73 129 67 0.35979527131839473 79 911 73 925 75 575
2015 0.14720927519433083 0.74323290324390068 3.8074447285127069 84 166 93 1.5181122814944197 79 223 73 971
2016 -0.14018763123961492 1.2067955165344986 2.6127014047250237 183 182 193 1.971613633507167 79 1063 73 976 33 983 60 416 62 377
2018 -0.27727386156184908 1.3453014288551268 2.7382394666194165 161 143 81 0.34159456941586813 16 838 98 1425 73 985 39 1094
2020 0.42921562700472382 0.96477498485840019 2.1563221131123762 77 157 88 0.25143960591878717 98 260 73 1010 33 987 12 288 84 829
2021 0.64699023606291894 0.88244836801339788 2.1883222530701709 113 91 56 0.36662657418583106 98 290 73 1027 64 1001 41 978 100 987
2023 0.070769659281031169 1.4147884217183946 2.5998347581198034 175 157 91 0.14386631188030366 16 1389 98 1019 73 1068 33 1054 62 1489 98 1466 60 1584 17 1286
2024 0.22986167767279669 1.3320486524065929 2.6368716683990518 68 120 58 0.28708869116388741 79 1106 73 1078 33 1055 86 419 67 426 84 279
2026 0.28568390769149682 1.3076343198728166 2.6626508771419011 148 137 86 0.25291005899233687 79 1099 73 1086 33 1059 39 1153 12 899 41 405 100 430 86 410 50 1085 84 901
2029 -0.044729056454919904 1.6230197605132539 2.4910265427149141 74 120 57 0.11428711181660345 98 1074 73 1097 39 1180
2030 -0.37847226991210464 1.9987537734483458 2.3650316659515962 252 251 248 0.79846877249163017 79 628 98 1107 73 1115 33 1154 16 351 39 1203 12 787 64 532 41 526 100 484 62 720 60 752 49 720 50 1387 67 1418 85 1267 69 386 84 772 7 310 87 731 75 705 44 613 38 607
2031 0.55629727500404313 1.3698192378992504 2.6324902072033645 78 114 63 0.04316782922498557 16 1014 73 1158 39 1211
2032 0.30648505471518772 1.5959252928126011 2.4669097035908272 66 101 52 0.12631009483933045 54 899 73 1161 33 1137 12 923 84 923 80 576 53 598
2033 -0.34318643261539739 2.1419095091065503 2.3598915507640799 167 153 83 0.28885758307305992 98 1156 73 1166 33 1210 39 518 12 808 64 1266 79 1919 41 1267 60 1797 67 1915 36 1412 4 955 20 1262 93 900 22 957 97 514
2034 -0.076594385045795646 1.944282919879696 2.3426988957548653 87 133 66 0.10691512577787599 16 1048 73 1174 67 1353 85 1212
2035 -0.018941571094557973 1.9247591336368177 2.3381443450246588 244 222 128 0.21019603051911884 16 1057 98 1159 73 1177
2036 -0.086809997704503886 1.9839752820989742 2.3282480832601142 115 160 82 1.0646256755706989 79 1343 73 1182 41 1225 39 1264 56 995
2038 0.60330968683997377 1.4820886510111544 2.5627718559058295 57 114 58 0.17019937527159573 15 1049 73 1194 33 1160 39 1256 12 1002 70 1068 62 958 60 1003
2039 0.65511179947471698 1.4629533690339351 2.5772696009314107 182 168 107 0.047691368147897505 98 1142 73 1201 33 1164
2040 0.24234333705216654 1.8404907680141784 2.3478463972221202 85 121 66 0.11568111524740865 54 837 73 1209 60 1176 50 1217 33 1218
2041 0.18824354725045842 1.9180412582142432 2.3194551501442193 188 189 109 0.25340726483586901 79 1305 73 1214
2042 -0.21623928796298583 2.4804275543649577 5.5155841990650707 142 151 89 0.79802721113065178 70 850 73 1236
2043 0.26853782544491028 1.9265284179839677 2.3134484718173933 235 215 131 0.18518176207663953 16 1114 73 1240 33 1242
2044 0.21579473445472158 1.9727886636187681 2.2985939212040027 66 116 61 0.18509629376982054 16 1118 70 1056 73 1242 54 812
2045 -0.086897733367975627 2.266562454131019 2.2804321177940481 154 196 103 0.092199814045111045 16 1131 73 1253
2046 -0.083622515315947651 2.2846242191660284 2.2746038041509431 121 187 92 0.089298934642933869 16 1136 73 1258
2047 0.23594640885181917 2.0435646343120779 2.2812554984981945 72 122 63 0.12185109542454223 98 1239 73 1264 33 1271 79 1356 39 1341 60 1224 64 1281 50 1260 49 1163
2048 -0.4405301861938602 2.6955828935113426 3.0664774147202021 214 193 172 0.67763794488786666 79 1483 73 1266 33 1307 64 1419 41 1425 86 2020 63 1317
2049 -0.39294309219598594 2.6552443948639524 3.0179864871232005 183 159 130 0.46046255732043584 79 1482 73 1269 33 1306 39 1391 64 1415 41 1422 91 1383 21 767
2050 0.48493296979505579 1.8639732106610289 2.3435104989956721 252 240 143 0.066019415430697712 15 1098 73 1271 12 997
2052 0.66348524419486843 1.8605948481173746 2.3652891490153873 63 111 58 0.037774921379559664 70 1141 73 1289
2053 0.67059705336712283 1.9074621284854698 2.3594435231920694 197 193 120 0.031525169149756643 16 1195 73 1301
2054 0.89503110461452595 1.7182333855341529 2.3019377910556491 106 91 58 0.23925999348763669 79 1229 73 1303 33 1283
2056 0.91630644147472695 1.7575987890259976 2.3216109269063865 110 93 68 0.17131193141177389 79 1242 73 1314 64 1256 41 1233 100 1227
2057 0.27461786681688238 2.3500639768743476 2.2516332532185794 95 175 84 0.79463483514587918 79 1969 73 1321 12 976 62 1664 98 1702 60 1743 34 1889 29 1430 7 979 36 897
2058 0.81156607229752387 1.8967883013629072 2.4044046862783568 143 145 94 0.27405570676850155 15 1165 73 1322 33 1311 17 686 7 492
2059 0.69865647412469956 2.0131219343299476 2.3303229850267284 62 107 57 0.072653900352425471 98 1292 73 1326
2060 0.69865647412469956 2.0131219343299476 2.3303229850267284 62 107 57 0.072653900352425471 98 1293 73 1327
2062 1.0745160466903312 2.5367479331305747 3.0764304291993589 255 255 255 0.49430582482424912 79 1459 73 1389 33 1407 39 1471 12 1120 64 1923 41 1438 100 1396 53 882 84 1110 80 646 43 592
2063 1.0561536305838208 2.5595004140533479 3.0692280177827223 255 255 255 0.49119098744291961 79 1465 73 1390 33 1408 39 1472 12 1119 64 865 41 1439 100 1397 91 820 86 1474 67 764 84 1428
2064 -0.21644844365590774 0.65616154188071174 1.7619927975713408 201 202 213 1.0959888667326447 98 822 73 1394 33 816 16 18 12 688 64 1451 41 1449 100 1407 91 1399 85 836 63 832 63 1344 68 1217 56 692
2065 -0.27211860070054139 0.69674428662242582 1.8102510292587821 215 216 229 1.4263540822573688 15 4 73 1395 12 686
2066 0.0067117701335581035 0.60325729458122401 1.736604638211003 75 115 70 0.34280884226915759 79 1499 73 1409 33 1426 39 903 64 883 41 856 50 1444 85 809 63 827
2068 0.1428087882518343 0.73664590634518479 1.8238253874446837 120 156 98 0.082037402281563546 16 1308 73 1438 39 1505
2069 0.33768705113385539 0.60645811213773471 1.7739258554334529 147 149 111 0.27407366003649797 79 1500 73 1439 64 1465 41 1456 100 1841 91 1402 86 1529 86 2032 50 1859 67 1959 85 1763 69 1274 63 1336
2070 0.26322781566900982 0.69397264586963869 1.7985177990560135 78 148 79 0.25679989645231044 98 1400 73 1445 41 1472 69 791 86 977
2071 0.19116332449715664 0.74798409414852063 3.8331653685476055 112 173 106 1.5588795472644452 79 1575 73 1487
2072 0.059319170363873401 1.165235332578703 2.5370408403706191 192 193 206 0.47226977176578405 79 2076 73 1499 33 1534 39 1593 64 2013 41 2012 100 1906 91 1907 86 2127 50 1944 67 2046 85 2068 69 1701 63 1863 84 799 78 1843 21 1756 52 1651
2073 0.082281234710737353 1.1486987581247929 2.5247512616432868 130 115 104 0.48601863915600491 79 1620 73 1500 33 1531 39 1590 64 1593 41 1590 91 1551 86 1696 67 1679 63 1527 84 1203 78 1507 34 965 29 917 68 1330 52 1350 94 1371
2074 0.082486070148608176 1.1500968295464351 2.5237833796387186 130 115 104 0.34207139728893587 79 1621 73 1501 33 1532 84 1204 38 620
2075 -0.21065136629664152 1.3849336576313016 2.6783489868697998 60 95 42 0.13147050131151786 15 1272 73 1504 12 1188 62 1836 31 1411
2076 0.072820867080338358 1.1809928397534484 2.5599208012083472 94 78 55 0.94755398931377566 79 1633 73 1506 33 1538 12 207 64 2015 41 2017 86 2131 67 2048 69 1702 29 1626
2078 -0.3618935259026515 1.5588536926173913 2.6152936348521445 88 125 59 0.086028488018420779 15 842 73 1514
2079 0.27769716430947283 1.1278178528577119 2.5287028040192592 131 117 109 0.31879403260286016 79 1614 73 1522 33 1542 39 1606 64 1600 41 1596 100 1559 91 1552 86 1688 67 1668 85 1495 69 1390 63 1523 84 1238 78 1502 21 961 34 334 7 814 68 1319 52 914 94 1368 38 946
2080 0.28445328354505478 1.1415849394299447 2.5468437104526584 190 195 209 0.78957172871922476 79 1616 73 1526 33 1549 39 1985 12 885 15 245 64 2016 41 2020 100 1911 86 1689 50 1038 69 1705 63 1860 84 1241 78 1842 21 1964 7 1442 68 1656 85 1836 94 1634 56 1228
2081 0.68866872797005863 0.87967376971104183 2.1847086149919366 99 79 50 0.37784012086907526 98 1447 73 1529 39 1596 12 1607
2082 0.036525820630499195 1.3669256848803415 2.6400236907750592 151 142 79 0.21530922328657437 79 1694 73 1531 33 1566 39 1624 64 1108 41 1088 100 1091 86 1214 67 1168 85 424
2083 0.002120714467520028 1.5586723297451734 2.5181905796547008 69 118 54 0.19082268941660127 70 1636 73 1553 17 1486 80 1006
2084 -0.10526719804432459 1.6665975031364593 2.4778102856772044 70 124 58 0.25147388211556215 98 1501 73 1556 12 1222 6 344
2086 -0.39755829545009602 2.0714810392645231 2.4125808603536782 224 201 186 1.598667918998383 15 920 73 1594 33 1672 98 1121
2088 0.077005290980538335 1.7148336416843069 2.4195829723485103 172 158 93 0.13603800741029182 15 1390 16 1460 73 1602 62 1576 17 1210
2090 -0.28255864348121174 2.0771373898728824 2.3612093367146723 96 171 74 0.31907892295561113 16 1483 73 1613 33 1700 12 1208 41 1241 91 554
2092 0.30301594748037503 1.6231381367466884 2.4549783643727974 63 100 51 0.21540665701382142 15 1428 73 1623 80 823 53 864 66 616
2093 -0.06821582977238666 2.0023039366173117 2.3152334476613063 98 145 72 0.16932168982379611 15 1415 16 1506 70 1390 73 1637
2094 0.26599258839371348 1.782549607345794 2.3704382806228583 70 111 60 0.19729093697276293 16 1511 70 1440 73 1650 33 1704 39 1715 12 1317 64 1715 99 1107 54 1283 31 1077 46 880 91 1636 30 477
2096 0.12949282229873932 2.0069765839789357 2.294848488661851 208 204 121 0.13408840676334954 15 1465 73 1664 39 1736 84 1271
2097 0.66439005889324143 1.5631818357881335 2.5223632327183556 56 113 57 0.17183266964002292 98 1583 73 1665 9 594 5 517 25 474
2098 0.11221548953882461 2.043884162969313 2.2879729318146866 230 216 130 0.16144284842030812 16 1534 73 1672 33 1745 39 1740 12 1294 60 1722 49 1609
2099 0.18061004302594991 2.061476615122348 2.2777123166711419 238 223 136 0.43241232293884568 15 1486 73 1689 12 1318
2100 -0.37744794930451786 2.666051619498488 3.0326563949336092 243 252 255 0.49644515694490204 79 2259 73 1705 39 2101 64 2187 41 2192 100 2054 91 2250 86 2310 63 2184 78 2149 52 1909
2102 -0.41072804933360141 2.7142785064872998 3.0517972739000596 224 223 233 0.45376021876509792 79 1986 73 1709 33 1806 39 1812 64 1909 41 1909 91 1819 86 2021 60 1807 50 1852 67 1953 85 1755
2103 0.24262430681464597 2.1324989715587956 2.2680347544598942 87 140 72 0.033226713802689337 16 1584 73 1723
2104 0.71833245109551613 1.8019364037720353 2.4008152174069766 207 193 116 0.4705774736638797 70 1527 73 1731 12 1434 41 1742 62 1465 60 1537 86 1791 99 1214
2106 0.49766433933705073 2.2639639300232353 4.3162401291798993 234 219 138 2.2145317171862793 79 1884 73 1734
2107 0.52969431862258021 1.9921306096427955 2.3014813372183212 60 108 59 0.042814268232590061 98 1669 73 1735
2109 0.069754507729683016 3.0008755963335325 5.6646008093733311 219 212 134 1.9060716321014359 54 1277 73 1746
2110 0.49241650239054496 2.1707646542415144 2.2727604581712231 84 150 73 0.17250282854415158 15 1549 73 1751
2112 0.61449873278383393 2.1444180636183163 2.2837881289575845 81 147 71 0.072162340441140255 15 1560 73 1766
2113 0.65882427547118172 2.1374000052553539 2.2893373550142213 79 143 70 0.12917156199647339 16 1625 73 1774 39 1848 64 1848
2114 0.62929462278157777 2.1758264750038956 2.2751953590979763 124 179 92 0.30755093492995755 98 1716 73 1779
2115 0.63252454555502668 2.2160589113202369 2.2812798450325782 163 195 110 0.077699348097148707 70 1171 73 1785
2117 0.7201882973805328 2.2029306697012929 2.2995443540094702 217 221 140 0.13718692146033215 98 1730 73 1800 64 1883 60 1137
2118 -0.017901718917762433 0.71399351167026048 1.7925093196819328 163 161 111 0.40570070278110881 98 1753 73 1828 33 1889 12 1483 99 1398
2120 0.28500830887922118 0.82617343159233603 1.9212016030107155 74 148 82 0.087526474138534982 98 1782 73 1861
2121 -0.21979617228856771 1.1472392167957011 2.500300766415124 78 96 62 1.1787929044844718 98 173 73 1864 33 959 64 2003 100 309 60 1109
2122 0.45120310120927476 0.80147211816269948 1.95933138935744 131 179 118 0.088494092358431933 79 2035 73 1871 33 1931 12 1255
2123 0.36953522375945391 0.90979941977736944 2.0582090575236802 160 171 122 0.36575678022349789 79 2299 98 1794 73 1876 33 1944 64 2245
2124 0.36848011686535243 0.92987956888940626 2.0877812091038668 77 156 88 0.29722690807675511 79 2049 73 1882 33 1948 39 1951 64 1987 41 1979
2125 -0.35208822130008505 1.6315684448983061 2.5624928201063186 182 160 88 0.12052790906914791 98 1817 73 1897 33 2204 39 1993 12 1502 64 2051 84 1182
2126 -0.08685104020192129 1.4459056164611699 2.6039763622588179 78 130 59 0.075550975475734278 79 2109 73 1900 12 1535 84 1495
2127 0.71794496634697424 0.98807754961326333 2.2024402210027345 255 254 184 0.57419567948681249 79 1580 98 1827 73 1913 33 1558 39 1988 86 1045
2129 -0.046708934038432619 1.7474600332347139 2.4220635387981564 93 131 65 0.47698412937574253 15 1865 73 1929 39 2024 64 2079 41 2075 86 2205 99 1529 31 1345 54 1220 67 2348 85 2116 84 1506 68 1695 56 1302 46 1265 79 2370 26 1034 48 980 66 710
2132 -0.59101858153411835 2.7451242414921002 5.2637617146974129 83 135 69 1.601436064177721 54 1523 73 1982
2133 -0.082568301736767741 2.187535008526249 2.2890107726718538 134 185 93 0.10636477112549413 79 2225 73 1983 33 2080
2134 0.33741823024960299 1.9474361652853958 2.3052782456767846 63 111 61 0.090092671489563916 79 2185 73 1994 62 1856
2136 0.34810367223895539 2.0088361660112626 2.2856365984560867 221 213 131 0.0014745408316767196 15 1747 73 2004
2137 0.39619936744650758 2.0978369717650618 2.2679654575389279 194 201 120 0.63139228284567128 15 1762 70 1751 73 2019 12 1621 60 2146 16 2003 17 1387 91 1989 49 2025 50 2206 84 1715 54 1835 80 980 88 1149
2140 0.29531658266748373 2.3153014791127609 2.2458620333801513 133 190 97 0.32956212704879712 15 1765 73 2031 39 2110 12 1364
2144 0.69212583943184613 2.1076628373409432 2.2997225226708089 72 130 64 0.15754105685087388 79 2209 73 2048 33 2126 64 2162 86 2223
2146 -0.23277826415731792 0.58896202813920684 1.7340391389689833 1 1 1 0.42590659694272243 79 1997 73 2069 33 1872 64 872 41 1443 86 2038 85 2024 78 52 68 1585
2147 0.10877920372380506 0.51003629102056869 1.5874645352315471 254 205 134 0.48008382458567045 98 1996 73 2071 39 2142 64 1927 41 1919
2148 0.095181361629755296 0.56667614748070017 1.6623893339079907 96 78 54 0.83984715737072102 79 2461 73 2074 33 2330 39 2315 12 1485 64 2385 41 2385 100 2230
2149 0.22147758314274643 0.57098827070536107 1.68552402079884 216 217 230 0.34151083443908226 98 1755 73 2080 33 2162 79 2464 64 2389 41 2389 100 2233
2150 0.12429821213586879 0.64930454708569008 1.7514978396390066 84 124 75 0.45552914297791819 98 2006 73 2083 33 2166 39 2156 64 1944 41 1933 100 1837 91 1835 50 1867 67 1963 85 1768 69 1624 78 1360 21 1299 68 1212
2151 -0.17758925040301649 0.75666564604828546 3.6690839913614357 74 147 81 0.71412248989089422 79 2308 73 2100
2152 0.27864642136321072 0.80489866291502365 1.9007554904391788 158 169 122 0.039911161919657719 79 2289 73 2102 33 2182
2153 -0.32424373883764912 1.4275605673641507 2.6854580109457098 40 78 32 0.4087912518552112 98 2031 73 2111 33 2346 39 2198 12 1706 99 1526 84 1648
2154 0.26050739534807277 1.2369166533684008 2.7271337495760744 67 111 54 0.20182560851858636 79 2086 73 2124 33 1976
2155 -0.081144462770241968 1.6578916120666609 2.4749516826741411 145 146 80 0.37777189522879517 16 1941 73 2133 33 2220 46 1274 26 1050
2158 -0.28607345576826898 2.2442268066092006 2.3137454115846441 224 207 119 0.1418912519057807 16 1980 73 2171 100 2162
2161 0.46623427428102887 1.9496292942468552 2.3164370637959104 59 108 59 0.045111364222142528 16 1998 73 2199
2162 0.49012383477081356 1.9300666658357715 2.3214357885274901 193 189 114 0.43250486213283673 15 1929 73 2200 12 1794 41 2323 62 2042 99 1573 17 1556 31 1491 84 1718 36 1677 38 1344 88 969
2164 0.60814299276846429 2.1715656148110667 2.2873602647071896 79 149 70 0.16920303075736334 79 2425 73 2228
2165 0.52810533144829652 2.2779893177582018 2.2673753031235444 221 220 137 0.28055904018600247 16 1876 79 2440 73 2230 33 2140 64 2361 41 2365 100 2204 62 1880 91 2219 67 2165 69 1973 84 1590
2166 0.62426897564514161 2.282861166741267 2.2868523813164376 94 163 78 0.34300228943164446 79 2438 73 2235 33 2318 64 2365 41 2368 100 2209 91 2226 86 2453 67 2158 85 1931 69 1984 63 1947 84 1596 7 1540 87 1351 75 1289 44 1213 38 1243
2167 0.70134775058164844 2.3340707149357733 2.3352872888360814 219 209 209 1.1534143755260395 79 2238 73 2241 33 2321
2171 0.26325727338342497 2.0267787664987535 2.2895735796313237 83 132 68 0.50147641832765255 79 2529 98 2227 73 2297 33 2379 86 2568 60 2283
2173 0.56768304676469505 2.1518844366165291 2.2744739536464507 228 220 140 0.30554819683477907 79 2539 73 2310 33 2392 39 2388 100 2292 41 2434 91 2327 86 2575 69 2089
2175 0.091237564719371597 1.1225713169994098 2.5277980409767449 121 124 119 0.68671289412878911 79 2579 73 2335 33 2415 50 2400
2177 0.21704476341165269 1.2267126663472667 2.7155351357697799 113 139 71 1.4443519420389206 98 2173 73 2344 33 2424 39 2477 79 2590 60 2237 49 2152 50 2405
2178 0.22894235915271929 1.222503991722276 2.6572531025916559 113 139 71 0.52340207492718349 98 2174 73 2345 33 2425 39 2478
2179 0.49064880623244495 1.3127871692770641 2.6749676928670763 124 131 77 0.5615280027452999 79 2491 73 2354 86 2530 60 2329 50 2314
2180 0.2432094130416447 2.2093555825829649 2.2525582648886697 171 198 107 0.88061826656288134 98 2294 73 2370 62 2258 91 2457
2181 0.31486862774264956 2.2046199740991939 2.302321413191212 114 164 84 1.312981123029543 79 2633 73 2372 39 2442 41 2548 100 2407
2182 0.77506767538547006 1.9588463467764479 2.3600680209239768 63 108 58 1.0198618182400307 54 1914 73 2375 33 2454 60 2250 99 1739 17 1708 49 2146 50 2174 36 1664 40 1010 93 48
2183 -0.46456409724599151 1.5705682956940288 2.0100463487173665 0 0 0 0.77665218265703029 79 2600 73 2392 33 2480 39 2469 64 2533 41 2527
2184 0.59510208113181806 0.74901568865636015 2.0211630047147748 133 131 141 0.77540357809892002 98 2315 73 2393 33 2474 39 2464 64 2524 41 2515 100 2373 91 2430 29 1976
2185 0.26104964354381177 1.2638763148382317 2.7136733773731074 94 108 61 0.88801302110741853 79 2655 73 2395 33 2483 39 2481 64 2536 41 2475 100 2332 91 2289 86 2674 67 2621 84 1930
2188 0.12203633765256468 1.6827035678269948 2.4293037950339045 110 128 69 1.0379436167836888 54 2008 70 2140 73 2440 33 2524 39 2527 12 2004 99 1828 31 1778 84 1963 38 1519 80 1324 26 1226 53 1328 88 1248
2189 0.23981389458098751 1.7992325612043598 2.3672804322535947 138 149 86 0.894092438435524 15 2126 16 2261 70 2094 73 2446 33 2534 41 2596 62 2338 60 2454 31 1727 31 1771 49 2343 50 2536
2190 -0.071991960074011485 2.2237204809548077 2.2859583801968633 102 183 86 1.3571690494532396 79 2814 73 2455 33 2610 64 2677 41 2676 91 2582 86 2831 60 2537 49 2411 50 2614 67 2784 85 2540 36 2038 68 2310 56 2070 40 1777
2191 -0.28191451074980983 0.73173630014545754 1.8790519182207723 79 125 71 1.8125086124120486 39 2556 64 2618 41 2612 91 2466 39 2557 63 2446 78 2332 34 2282 29 1970 69 2179 33 2548 73 2467 33 2547 73 2466 84 1906 12 2027 98 2376
2192 0.48405549052894509 0.76048585923035561 1.9405884251702517 172 192 136 1.0109558362368933 79 2680 73 2479 33 2558 39 2569 64 2629 41 2623 100 2478 91 2472 86 2705 69 2283 21 2194 29 2089
2194 0.22830916425893832 1.6917212828518533 2.4182418269805339 76 116 60 0.82403400873676003 16 2255 73 2494 33 2584 39 2588 100 2502 62 2389 60 2497 31 1775 17 1839 49 2382 50 2581 69 2249 84 2003 36 2025 46 1506 26 1250 48 1272 30 1240 66 942
2195 0.27535150318258894 2.1296414693446413 2.2586781664194606 94 154 77 0.9259227714067424 16 2283 73 2517 33 2617 39 2614 79 2806 64 2682 41 2679 100 2520 86 2817 60 2518 69 2317
2196 -0.37992452726021408 1.7606684365821186 2.249658893846247 212 210 217 1.1581827047199931 98 2445 73 2540 33 2636 12 2080
2197 0.52042165983390087 1.4589184672119302 2.5692784246795499 28 56 30 0.15685473086313653 98 465 70 449 73 485 16 413 79 375
2198 0.54612517933282556 1.6189505397865676 2.4704712454901965 51 92 45 0.26533506167295828 98 1899 15 1730 73 1980 98 1582 79 1758 15 1483 70 1481 54 1379 33 2045 39 2053 12 1373 62 1456 86 1765 60 1533 99 1196 31 1124 31 1374 17 1144 49 1462 50 1090 84 1566 46 870 80 874 26 754 26 926 53 1034 48 761 30 730 4 532
2199 0.67364499993491977 1.7228021792355783 2.433549163636171 33 55 24 0.25517666683518425 16 1139 70 1120 54 1397 73 1708 15 1523 98 1621 39 1758 12 1419 64 1731 41 1720 17 1107 84 1360 80 871 26 505 66 373
2200 0.71514384220111193 0.91417560358194738 2.2084873813547881 251 250 249 2.0273943434145352 98 335 16 954 15 990 70 452 73 1056 98 324 16 945 54 678 33 1022 99 971 31 523 31 524 17 383
2201 0.20711791159462825 1.7897135456340847 2.3703617222958528 64 104 55 0.14207899230095708 98 1574 16 1504 73 1641 15 1438 54 1275 39 1703 12 1299 60 1636 62 1571 49 1544 17 1153 50 1673 46 886 79 1808
2203 -0.26617496335947294 0.67555885112875524 1.7542079096409782 207 208 219 0.64503024895164363 73 13 12 1 56 96
2204 -0.35548905121180135 0.73069730803566069 1.770542588881765 166 162 167 1.7728680187685371 73 10 98 11 33 17
2205 0.23915669716931104 0.50163160779168847 1.6323956940783422 32 19 9 0.87325076757250952 73 40 33 25 12 740
2206 -0.23766148189151318 0.68967362316544101 1.8266484354815538 53 108 61 0.099062253035600067 79 96 33 26 39 22 50 154
2207 0.12593894719047163 0.56414043061834662 1.631777825647984 249 246 230 0.19303023791123733 73 34 33 28 39 17 64 12 41 18 100 14 69 8
2208 0.12595127552465366 0.56403494411253918 1.6319497392301097 249 246 230 0.22848412265651752 73 35 33 29 64 13 41 17 69 9
2209 0.20542244389669034 0.54043937192946501 1.6445058275651399 99 84 63 0.84803897736341671 79 18 33 34 39 26 64 874 41 14 100 16 69 761 7 14 87 12
2210 -0.19564021917456745 0.69377916429964714 1.8200770830510926 58 115 62 0.1617122601934094 79 98 33 35 39 28 100 53 91 79 86 131 50 141 67 120 85 90 63 82 56 102 20 68
2211 0.13310944934320634 0.60096972511446545 1.7318087123672388 175 174 131 0.14531490182768389 79 39 33 47 39 40 73 55 41 41 86 55 60 77 62 83 49 69
2212 -0.16447831553957837 0.72818477020343186 1.8277663281909686 141 141 97 0.21731921287716099 16 47 33 48 64 60 41 75 100 62 49 213 50 143
2213 -0.23148155197389786 0.77658124120047189 1.8721118877835701 151 147 101 0.11323530883257069 73 39 33 54 41 93 91 113
2214 0.16123900019127782 0.62694007845093058 1.7421855069854821 51 105 58 0.16811810943603953 16 86 33 58 62 85
2216 0.26859387797669332 0.63028813990918142 1.776996171352037 212 215 149 0.39293116820994151 73 83 33 70 39 74
2217 0.17200832149091244 0.69799643610799911 1.780953841315088 67 128 71 0.027455530391269301 73 81 33 79
2218 0.31928732072227106 0.631502974749101 1.7895592089128693 67 109 59 0.54219566244489581 79 66 33 83 62 47
